2.8320000000e+02 2.1695814200e+06 0.0000000000e+00
2.8320000000e+02 2.1695828800e+06 0.0000000000e+00
2.8320000000e+02 2.1695843400e+06 0.0000000000e+00
2.8320000000e+02 2.1695858000e+06 0.0000000000e+00
2.8320000000e+02 2.1695872600e+06 0.0000000000e+00
2.8320000000e+02 2.1695887200e+06 0.0000000000e+00
2.8320000000e+02 2.1695901800e+06 0.0000000000e+00
2.8320000000e+02 2.1695916400e+06 0.0000000000e+00
2.8320000000e+02 2.1695931000e+06 0.0000000000e+00
2.8320000000e+02 2.1695945600e+06 0.0000000000e+00
2.8320000000e+02 2.1695960200e+06 0.0000000000e+00
2.8320000000e+02 2.1695974800e+06 0.0000000000e+00
2.8320000000e+02 2.1695989400e+06 0.0000000000e+00
2.8320000000e+02 2.1696004000e+06 0.0000000000e+00
2.8320000000e+02 2.1696018600e+06 0.0000000000e+00
2.8320000000e+02 2.1696033200e+06 0.0000000000e+00
2.8320000000e+02 2.1696047800e+06 0.0000000000e+00
2.8320000000e+02 2.1696062400e+06 0.0000000000e+00
2.8320000000e+02 2.1696077000e+06 0.0000000000e+00
2.8320000000e+02 2.1696091600e+06 0.0000000000e+00
2.8320000000e+02 2.1696106200e+06 0.0000000000e+00
2.8320000000e+02 2.1696120800e+06 0.0000000000e+00
2.8320000000e+02 2.1696135400e+06 0.0000000000e+00
2.8480000000e+02 2.1692500000e+06 0.0000000000e+00
2.8480000000e+02 2.1692514600e+06 -9.0025678804e-02
2.8480000000e+02 2.1692529200e+06 -8.7865598159e-02
2.8480000000e+02 2.1692543800e+06 -8.5704977304e-02
2.8480000000e+02 2.1692558400e+06 -8.3543829521e-02
2.8480000000e+02 2.1692573000e+06 -8.1382168098e-02
2.8480000000e+02 2.1692587600e+06 -7.9220006325e-02
2.8480000000e+02 2.1692602200e+06 -7.7057357494e-02
2.8480000000e+02 2.1692616800e+06 -7.4894234904e-02
2.8480000000e+02 2.1692631400e+06 -7.2730651853e-02
2.8480000000e+02 2.1692646000e+06 -7.0566621642e-02
2.8480000000e+02 2.1692660600e+06 -6.8402157578e-02
2.8480000000e+02 2.1692675200e+06 -6.6237272966e-02
2.8480000000e+02 2.1692689800e+06 -6.4071981118e-02
2.8480000000e+02 2.1692704400e+06 -6.1906295345e-02
2.8480000000e+02 2.1692719000e+06 -5.9740228963e-02
2.8480000000e+02 2.1692733600e+06 -5.7573795289e-02
2.8480000000e+02 2.1692748200e+06 -5.5407007642e-02
2.8480000000e+02 2.1692762800e+06 -5.3239879345e-02
2.8480000000e+02 2.1692777400e+06 -5.1072423720e-02
2.8480000000e+02 2.1692792000e+06 -4.8904654095e-02
2.8480000000e+02 2.1692806600e+06 -4.7203082670e-02
2.8480000000e+02 2.1692821200e+06 -4.6091836210e-02
2.8480000000e+02 2.1692835800e+06 -4.4980515314e-02
2.8480000000e+02 2.1692850400e+06 -4.3869121777e-02
2.8480000000e+02 2.1692865000e+06 -4.2757657395e-02
2.8480000000e+02 2.1692879600e+06 -4.1646123962e-02
2.8480000000e+02 2.1692894200e+06 -4.0534523272e-02
2.8480000000e+02 2.1692908800e+06 -3.9422857122e-02
2.8480000000e+02 2.1692923400e+06 -3.8311127307e-02
2.8480000000e+02 2.1692938000e+06 -3.7199335621e-02
2.8480000000e+02 2.1692952600e+06 -3.6087483861e-02
2.8480000000e+02 2.1692967200e+06 -3.4975573822e-02
2.8480000000e+02 2.1692981800e+06 -3.3863607299e-02
2.8480000000e+02 2.1692996400e+06 -3.2751586089e-02
2.8480000000e+02 2.1693011000e+06 -3.1639511987e-02
2.8480000000e+02 2.1693025600e+06 -3.0527386790e-02
2.8480000000e+02 2.1693040200e+06 -2.9415212292e-02
2.8480000000e+02 2.1693054800e+06 -2.8302990291e-02
2.8480000000e+02 2.1693069400e+06 -2.7190722582e-02
2.8480000000e+02 2.1693084000e+06 -2.6078410962e-02
2.8480000000e+02 2.1693098600e+06 -2.4966057227e-02
2.8480000000e+02 2.1693113200e+06 -2.3853663173e-02
2.8480000000e+02 2.1693127800e+06 -2.4026724035e-02
2.8480000000e+02 2.1693142400e+06 -2.5075071041e-02
2.8480000000e+02 2.1693157000e+06 -2.6123382079e-02
2.8480000000e+02 2.1693171600e+06 -2.7171655648e-02
2.8480000000e+02 2.1693186200e+06 -2.8219890244e-02
2.8480000000e+02 2.1693200800e+06 -2.9268084362e-02
2.8480000000e+02 2.1693215400e+06 -3.0316236501e-02
2.8480000000e+02 2.1693230000e+06 -3.1364345155e-02
2.8480000000e+02 2.1693244600e+06 -3.2412408822e-02
2.8480000000e+02 2.1693259200e+06 -3.3460425999e-02
2.8480000000e+02 2.1693273800e+06 -3.4508395182e-02
2.8480000000e+02 2.1693288400e+06 -3.5556314868e-02
2.8480000000e+02 2.1693303000e+06 -3.6604183555e-02
2.8480000000e+02 2.1693317600e+06 -3.7651999738e-02
2.8480000000e+02 2.1693332200e+06 -3.8699761916e-02
2.8480000000e+02 2.1693346800e+06 -3.9747468585e-02
2.8480000000e+02 2.1693361400e+06 -4.0795118243e-02
2.8480000000e+02 2.1693376000e+06 -4.1842709386e-02
2.8480000000e+02 2.1693390600e+06 -4.2890240513e-02
2.8480000000e+02 2.1693405200e+06 -4.3937710121e-02
2.8480000000e+02 2.1693419800e+06 -4.4985116706e-02
2.8480000000e+02 2.1693434400e+06 -4.6032458768e-02
2.8480000000e+02 2.1693449000e+06 -4.6562238678e-02
2.8480000000e+02 2.1693463600e+06 -4.5935412115e-02
2.8480000000e+02 2.1693478200e+06 -4.5308561950e-02
2.8480000000e+02 2.1693492800e+06 -4.4681688504e-02
2.8480000000e+02 2.1693507400e+06 -4.4054792100e-02
2.8480000000e+02 2.1693522000e+06 -4.3427873060e-02
2.8480000000e+02 2.1693536600e+06 -4.2800931706e-02
2.8480000000e+02 2.1693551200e+06 -4.2173968360e-02
2.8480000000e+02 2.1693565800e+06 -4.1546983344e-02
2.8480000000e+02 2.1693580400e+06 -4.0919976981e-02
2.8480000000e+02 2.1693595000e+06 -4.0292949593e-02
2.8480000000e+02 2.1693609600e+06 -3.9665901501e-02
2.8480000000e+02 2.1693624200e+06 -3.9038833028e-02
2.8480000000e+02 2.1693638800e+06 -3.8411744497e-02
2.8480000000e+02 2.1693653400e+06 -3.7784636228e-02
2.8480000000e+02 2.1693668000e+06 -3.7157508546e-02
2.8480000000e+02 2.1693682600e+06 -3.6530361771e-02
2.8480000000e+02 2.1693697200e+06 -3.5903196226e-02
2.8480000000e+02 2.1693711800e+06 -3.5276012234e-02
2.8480000000e+02 2.1693726400e+06 -3.4648810116e-02
2.8480000000e+02 2.1693741000e+06 -3.4021590195e-02
2.8480000000e+02 2.1693755600e+06 -3.3394352793e-02
2.8480000000e+02 2.1693770200e+06 -3.2781738500e-02
2.8480000000e+02 2.1693784800e+06 -3.2781738495e-02
2.8480000000e+02 2.1693799400e+06 -3.2781738490e-02
2.8480000000e+02 2.1693814000e+06 -3.2781738485e-02
2.8480000000e+02 2.1693828600e+06 -3.2781738480e-02
2.8480000000e+02 2.1693843200e+06 -3.2781738475e-02
2.8480000000e+02 2.1693857800e+06 -3.2781738470e-02
2.8480000000e+02 2.1693872400e+06 -3.2781738465e-02
2.8480000000e+02 2.1693887000e+06 -3.2781738461e-02
2.8480000000e+02 2.1693901600e+06 -3.2781738456e-02
2.8480000000e+02 2.1693916200e+06 -3.2781738451e-02
2.8480000000e+02 2.1693930800e+06 -3.2781738446e-02
2.8480000000e+02 2.1693945400e+06 -3.2781738441e-02
2.8480000000e+02 2.1693960000e+06 -3.2781738436e-02
2.8480000000e+02 2.1693974600e+06 -3.2781738431e-02
2.8480000000e+02 2.1693989200e+06 -3.2781738426e-02
2.8480000000e+02 2.1694003800e+06 -3.2536807439e-02
2.8480000000e+02 2.1694018400e+06 -3.0476493836e-02
2.8480000000e+02 2.1694033000e+06 -2.8416011308e-02
2.8480000000e+02 2.1694047600e+06 -2.6355371275e-02
2.8480000000e+02 2.1694062200e+06 -2.4294585159e-02
2.8480000000e+02 2.1694076800e+06 -2.2233664383e-02
2.8480000000e+02 2.1694091400e+06 -2.0172620370e-02
2.8480000000e+02 2.1694106000e+06 -1.8111464544e-02
2.8480000000e+02 2.1694120600e+06 -1.6050208329e-02
2.8480000000e+02 2.1694135200e+06 -1.3988863152e-02
2.8480000000e+02 2.1694149800e+06 -1.1927440436e-02
2.8480000000e+02 2.1694164400e+06 -9.8659516097e-03
2.8480000000e+02 2.1694179000e+06 -7.8044080978e-03
2.8480000000e+02 2.1694193600e+06 -5.7428213275e-03
2.8480000000e+02 2.1694208200e+06 -3.6812027259e-03
2.8480000000e+02 2.1694222800e+06 -1.6195637201e-03
2.8480000000e+02 2.1694237400e+06 -4.2702216843e-04
2.8480000000e+02 2.1694252000e+06 -2.4184263265e-03
2.8480000000e+02 2.1694266600e+06 -4.4098179775e-03
2.8480000000e+02 2.1694281200e+06 -6.4011868229e-03
2.8480000000e+02 2.1694295800e+06 -8.3925225642e-03
2.8480000000e+02 2.1694310400e+06 -1.0383814903e-02
2.8480000000e+02 2.1694325000e+06 -1.2375053542e-02
2.8480000000e+02 2.1694339600e+06 -1.4366228182e-02
2.8480000000e+02 2.1694354200e+06 -1.6357328527e-02
2.8480000000e+02 2.1694368800e+06 -1.8348344279e-02
2.8480000000e+02 2.1694383400e+06 -2.0339265141e-02
2.8480000000e+02 2.1694398000e+06 -2.2330080818e-02
2.8480000000e+02 2.1694412600e+06 -2.4320781014e-02
2.8480000000e+02 2.1694427200e+06 -2.6311355434e-02
2.8480000000e+02 2.1694441800e+06 -2.8301793784e-02
2.8480000000e+02 2.1694456400e+06 -3.0292085769e-02
2.8480000000e+02 2.1694471000e+06 -3.1665317473e-02
2.8480000000e+02 2.1694485600e+06 -3.1665247709e-02
2.8480000000e+02 2.1694500200e+06 -3.1665177946e-02
2.8480000000e+02 2.1694514800e+06 -3.1665108183e-02
2.8480000000e+02 2.1694529400e+06 -3.1665038419e-02
2.8480000000e+02 2.1694544000e+06 -3.1664968656e-02
2.8480000000e+02 2.1694558600e+06 -3.1664898892e-02
2.8480000000e+02 2.1694573200e+06 -3.1664829129e-02
2.8480000000e+02 2.1694587800e+06 -3.1664759366e-02
2.8480000000e+02 2.1694602400e+06 -3.1664689602e-02
2.8480000000e+02 2.1694617000e+06 -3.1664619839e-02
2.8480000000e+02 2.1694631600e+06 -3.1664550075e-02
2.8480000000e+02 2.1694646200e+06 -3.1664480312e-02
2.8480000000e+02 2.1694660800e+06 -3.1664410549e-02
2.8480000000e+02 2.1694675400e+06 -3.1664340785e-02
2.8480000000e+02 2.1694690000e+06 -3.1664271022e-02
2.8480000000e+02 2.1694704600e+06 -3.1664201258e-02
2.8480000000e+02 2.1694719200e+06 -3.1657989512e-02
2.8480000000e+02 2.1694733800e+06 -3.1650637535e-02
2.8480000000e+02 2.1694748400e+06 -3.1643285555e-02
2.8480000000e+02 2.1694763000e+06 -3.1635933574e-02
2.8480000000e+02 2.1694777600e+06 -3.1628581590e-02
2.8480000000e+02 2.1694792200e+06 -3.1621229603e-02
2.8480000000e+02 2.1694806800e+06 -3.1613877615e-02
2.8480000000e+02 2.1694821400e+06 -3.1606525624e-02
2.8480000000e+02 2.1694836000e+06 -3.1599173631e-02
2.8480000000e+02 2.1694850600e+06 -3.1591821636e-02
2.8480000000e+02 2.1694865200e+06 -3.1584469639e-02
2.8480000000e+02 2.1694879800e+06 -3.1577117639e-02
2.8480000000e+02 2.1694894400e+06 -3.1569765637e-02
2.8480000000e+02 2.1694909000e+06 -3.1562413633e-02
2.8480000000e+02 2.1694923600e+06 -3.1555061627e-02
2.8480000000e+02 2.1694938200e+06 -3.1547709618e-02
2.8480000000e+02 2.1694952800e+06 -3.1543128334e-02
2.8480000000e+02 2.1694967400e+06 -3.1543128330e-02
2.8480000000e+02 2.1694982000e+06 -3.1543128325e-02
2.8480000000e+02 2.1694996600e+06 -3.1543128321e-02
2.8480000000e+02 2.1695011200e+06 -3.1543128316e-02
2.8480000000e+02 2.1695025800e+06 -3.1543128312e-02
2.8480000000e+02 2.1695040400e+06 -3.1543128307e-02
2.8480000000e+02 2.1695055000e+06 -3.1543128303e-02
2.8480000000e+02 2.1695069600e+06 -3.1543128298e-02
2.8480000000e+02 2.1695084200e+06 -3.1543128293e-02
2.8480000000e+02 2.1695098800e+06 -3.1543128289e-02
2.8480000000e+02 2.1695113400e+06 -3.1543128284e-02
2.8480000000e+02 2.1695128000e+06 -3.1543128280e-02
2.8480000000e+02 2.1695142600e+06 -3.1543128275e-02
2.8480000000e+02 2.1695157200e+06 -3.1543128271e-02
2.8480000000e+02 2.1695171800e+06 -3.1543128266e-02
2.8480000000e+02 2.1695186400e+06 -3.1543128262e-02
2.8480000000e+02 2.1695201000e+06 -3.1543128261e-02
2.8480000000e+02 2.1695215600e+06 -3.1543128261e-02
2.8480000000e+02 2.1695230200e+06 -3.1543128261e-02
2.8480000000e+02 2.1695244800e+06 -3.1543128261e-02
2.8480000000e+02 2.1695259400e+06 -3.1543128261e-02
2.8480000000e+02 2.1695274000e+06 -3.1543128261e-02
2.8480000000e+02 2.1695288600e+06 -3.1543128261e-02
2.8480000000e+02 2.1695303200e+06 -3.1543128261e-02
2.8480000000e+02 2.1695317800e+06 -3.1543128261e-02
2.8480000000e+02 2.1695332400e+06 -3.1543128261e-02
2.8480000000e+02 2.1695347000e+06 -3.1543128261e-02
2.8480000000e+02 2.1695361600e+06 -3.1543128261e-02
2.8480000000e+02 2.1695376200e+06 -3.1543128261e-02
2.8480000000e+02 2.1695390800e+06 -3.1543128261e-02
2.8480000000e+02 2.1695405400e+06 -3.1543128261e-02
2.8480000000e+02 2.1695420000e+06 -3.1543128261e-02
2.8480000000e+02 2.1695434600e+06 -3.0938098049e-02
2.8480000000e+02 2.1695449200e+06 -2.9030550696e-02
2.8480000000e+02 2.1695463800e+06 -2.7122865428e-02
2.8480000000e+02 2.1695478400e+06 -2.5215051305e-02
2.8480000000e+02 2.1695493000e+06 -2.3307117393e-02
2.8480000000e+02 2.1695507600e+06 -2.1399072754e-02
2.8480000000e+02 2.1695522200e+06 -1.9490926454e-02
2.8480000000e+02 2.1695536800e+06 -1.7582687558e-02
2.8480000000e+02 2.1695551400e+06 -1.5674365131e-02
2.8480000000e+02 2.1695566000e+06 -1.3765968239e-02
2.8480000000e+02 2.1695580600e+06 -1.1857505949e-02
2.8480000000e+02 2.1695595200e+06 -9.9489873274e-03
2.8480000000e+02 2.1695609800e+06 -8.0404214404e-03
2.8480000000e+02 2.1695624400e+06 -6.1318173555e-03
2.8480000000e+02 2.1695639000e+06 -4.2231841400e-03
2.8480000000e+02 2.1695653600e+06 -2.3145308612e-03
2.8480000000e+02 2.1695668200e+06 -4.0586658668e-04
2.8480000000e+02 2.1695682800e+06 0.0000000000e+00
2.8480000000e+02 2.1695697400e+06 0.0000000000e+00
2.8480000000e+02 2.1695712000e+06 0.0000000000e+00
2.8480000000e+02 2.1695726600e+06 0.0000000000e+00
2.8480000000e+02 2.1695741200e+06 0.0000000000e+00
2.8480000000e+02 2.1695755800e+06 0.0000000000e+00
2.8480000000e+02 2.1695770400e+06 0.0000000000e+00
2.8480000000e+02 2.1695785000e+06 0.0000000000e+00
2.8480000000e+02 2.1695799600e+06 0.0000000000e+00
2.8480000000e+02 2.1695814200e+06 0.0000000000e+00
2.8480000000e+02 2.1695828800e+06 0.0000000000e+00
2.8480000000e+02 2.1695843400e+06 0.0000000000e+00
2.8480000000e+02 2.1695858000e+06 0.0000000000e+00
2.8480000000e+02 2.1695872600e+06 0.0000000000e+00
2.8480000000e+02 2.1695887200e+06 0.0000000000e+00
2.8480000000e+02 2.1695901800e+06 0.0000000000e+00
2.8480000000e+02 2.1695916400e+06 0.0000000000e+00
2.8480000000e+02 2.1695931000e+06 0.0000000000e+00
2.8480000000e+02 2.1695945600e+06 0.0000000000e+00
2.8480000000e+02 2.1695960200e+06 0.0000000000e+00
2.8480000000e+02 2.1695974800e+06 0.0000000000e+00
2.8480000000e+02 2.1695989400e+06 0.0000000000e+00
2.8480000000e+02 2.1696004000e+06 0.0000000000e+00
2.8480000000e+02 2.1696018600e+06 0.0000000000e+00
2.8480000000e+02 2.1696033200e+06 0.0000000000e+00
2.8480000000e+02 2.1696047800e+06 0.0000000000e+00
2.8480000000e+02 2.1696062400e+06 0.0000000000e+00
2.8480000000e+02 2.1696077000e+06 0.0000000000e+00
2.8480000000e+02 2.1696091600e+06 0.0000000000e+00
2.8480000000e+02 2.1696106200e+06 0.0000000000e+00
2.8480000000e+02 2.1696120800e+06 0.0000000000e+00
2.8480000000e+02 2.1696135400e+06 0.0000000000e+00
2.8640000000e+02 2.1692500000e+06 0.0000000000e+00
2.8640000000e+02 2.1692514600e+06 -8.5732251573e-02
2.8640000000e+02 2.1692529200e+06 -8.3571110358e-02
2.8640000000e+02 2.1692543800e+06 -8.1409455336e-02
2.8640000000e+02 2.1692558400e+06 -7.9247299795e-02
2.8640000000e+02 2.1692573000e+06 -7.7084657030e-02
2.8640000000e+02 2.1692587600e+06 -7.4921540337e-02
2.8640000000e+02 2.1692602200e+06 -7.2757963014e-02
2.8640000000e+02 2.1692616800e+06 -7.0593938365e-02
2.8640000000e+02 2.1692631400e+06 -6.8429479693e-02
2.8640000000e+02 2.1692646000e+06 -6.6264600306e-02
2.8640000000e+02 2.1692660600e+06 -6.4099313515e-02
2.8640000000e+02 2.1692675200e+06 -6.1933632632e-02
2.8640000000e+02 2.1692689800e+06 -5.9767570971e-02
2.8640000000e+02 2.1692704400e+06 -5.7601141849e-02
2.8640000000e+02 2.1692719000e+06 -5.5434358588e-02
2.8640000000e+02 2.1692733600e+06 -5.3267234507e-02
2.8640000000e+02 2.1692748200e+06 -5.1099782931e-02
2.8640000000e+02 2.1692762800e+06 -4.8932017186e-02
2.8640000000e+02 2.1692777400e+06 -4.7217108135e-02
2.8640000000e+02 2.1692792000e+06 -4.6105862625e-02
2.8640000000e+02 2.1692806600e+06 -4.4994542658e-02
2.8640000000e+02 2.1692821200e+06 -4.3883150027e-02
2.8640000000e+02 2.1692835800e+06 -4.2771686528e-02
2.8640000000e+02 2.1692850400e+06 -4.1660153955e-02
2.8640000000e+02 2.1692865000e+06 -4.0548554103e-02
2.8640000000e+02 2.1692879600e+06 -3.9436888768e-02
2.8640000000e+02 2.1692894200e+06 -3.8325159745e-02
2.8640000000e+02 2.1692908800e+06 -3.7213368829e-02
2.8640000000e+02 2.1692923400e+06 -3.6101517816e-02
2.8640000000e+02 2.1692938000e+06 -3.4989608502e-02
2.8640000000e+02 2.1692952600e+06 -3.3877642681e-02
2.8640000000e+02 2.1692967200e+06 -3.2765622149e-02
2.8640000000e+02 2.1692981800e+06 -3.1653548704e-02
2.8640000000e+02 2.1692996400e+06 -3.0541424140e-02
2.8640000000e+02 2.1693011000e+06 -2.9429250253e-02
2.8640000000e+02 2.1693025600e+06 -2.8317028841e-02
2.8640000000e+02 2.1693040200e+06 -2.7204761698e-02
2.8640000000e+02 2.1693054800e+06 -2.6092450620e-02
2.8640000000e+02 2.1693069400e+06 -2.4980097406e-02
2.8640000000e+02 2.1693084000e+06 -2.3867703850e-02
2.8640000000e+02 2.1693098600e+06 -2.4013491769e-02
2.8640000000e+02 2.1693113200e+06 -2.5061839218e-02
2.8640000000e+02 2.1693127800e+06 -2.6110150721e-02
2.8640000000e+02 2.1693142400e+06 -2.7158424772e-02
2.8640000000e+02 2.1693157000e+06 -2.8206659869e-02
2.8640000000e+02 2.1693171600e+06 -2.9254854508e-02
2.8640000000e+02 2.1693186200e+06 -3.0303007185e-02
2.8640000000e+02 2.1693200800e+06 -3.1351116398e-02
2.8640000000e+02 2.1693215400e+06 -3.2399180642e-02
2.8640000000e+02 2.1693230000e+06 -3.3447198415e-02
2.8640000000e+02 2.1693244600e+06 -3.4495168213e-02
2.8640000000e+02 2.1693259200e+06 -3.5543088534e-02
2.8640000000e+02 2.1693273800e+06 -3.6590957873e-02
2.8640000000e+02 2.1693288400e+06 -3.7638774729e-02
2.8640000000e+02 2.1693303000e+06 -3.8686537597e-02
2.8640000000e+02 2.1693317600e+06 -3.9734244976e-02
2.8640000000e+02 2.1693332200e+06 -4.0781895363e-02
2.8640000000e+02 2.1693346800e+06 -4.1829487255e-02
2.8640000000e+02 2.1693361400e+06 -4.2877019148e-02
2.8640000000e+02 2.1693376000e+06 -4.3924489542e-02
2.8640000000e+02 2.1693390600e+06 -4.4971896932e-02
2.8640000000e+02 2.1693405200e+06 -4.6019239818e-02
2.8640000000e+02 2.1693419800e+06 -4.6570150215e-02
2.8640000000e+02 2.1693434400e+06 -4.5943323952e-02
2.8640000000e+02 2.1693449000e+06 -4.5316474083e-02
2.8640000000e+02 2.1693463600e+06 -4.4689600929e-02
2.8640000000e+02 2.1693478200e+06 -4.4062704813e-02
2.8640000000e+02 2.1693492800e+06 -4.3435786057e-02
2.8640000000e+02 2.1693507400e+06 -4.2808844982e-02
2.8640000000e+02 2.1693522000e+06 -4.2181881912e-02
2.8640000000e+02 2.1693536600e+06 -4.1554897168e-02
2.8640000000e+02 2.1693551200e+06 -4.0927891072e-02
2.8640000000e+02 2.1693565800e+06 -4.0300863947e-02
2.8640000000e+02 2.1693580400e+06 -3.9673816114e-02
2.8640000000e+02 2.1693595000e+06 -3.9046747897e-02
2.8640000000e+02 2.1693609600e+06 -3.8419659616e-02
2.8640000000e+02 2.1693624200e+06 -3.7792551595e-02
2.8640000000e+02 2.1693638800e+06 -3.7165424155e-02
2.8640000000e+02 2.1693653400e+06 -3.6538277620e-02
2.8640000000e+02 2.1693668000e+06 -3.5911112310e-02
2.8640000000e+02 2.1693682600e+06 -3.5283928548e-02
2.8640000000e+02 2.1693697200e+06 -3.4656726657e-02
2.8640000000e+02 2.1693711800e+06 -3.4029506959e-02
2.8640000000e+02 2.1693726400e+06 -3.3402269775e-02
2.8640000000e+02 2.1693741000e+06 -3.2781738500e-02
2.8640000000e+02 2.1693755600e+06 -3.2781738495e-02
2.8640000000e+02 2.1693770200e+06 -3.2781738490e-02
2.8640000000e+02 2.1693784800e+06 -3.2781738485e-02
2.8640000000e+02 2.1693799400e+06 -3.2781738480e-02
2.8640000000e+02 2.1693814000e+06 -3.2781738475e-02
2.8640000000e+02 2.1693828600e+06 -3.2781738470e-02
2.8640000000e+02 2.1693843200e+06 -3.2781738465e-02
2.8640000000e+02 2.1693857800e+06 -3.2781738461e-02
2.8640000000e+02 2.1693872400e+06 -3.2781738456e-02
2.8640000000e+02 2.1693887000e+06 -3.2781738451e-02
2.8640000000e+02 2.1693901600e+06 -3.2781738446e-02
2.8640000000e+02 2.1693916200e+06 -3.2781738441e-02
2.8640000000e+02 2.1693930800e+06 -3.2781738436e-02
2.8640000000e+02 2.1693945400e+06 -3.2781738431e-02
2.8640000000e+02 2.1693960000e+06 -3.2781738426e-02
2.8640000000e+02 2.1693974600e+06 -3.2562811209e-02
2.8640000000e+02 2.1693989200e+06 -3.0502499811e-02
2.8640000000e+02 2.1694003800e+06 -2.8442019344e-02
2.8640000000e+02 2.1694018400e+06 -2.6381381228e-02
2.8640000000e+02 2.1694033000e+06 -2.4320596885e-02
2.8640000000e+02 2.1694047600e+06 -2.2259677738e-02
2.8640000000e+02 2.1694062200e+06 -2.0198635208e-02
2.8640000000e+02 2.1694076800e+06 -1.8137480722e-02
2.8640000000e+02 2.1694091400e+06 -1.6076225704e-02
2.8640000000e+02 2.1694106000e+06 -1.4014881578e-02
2.8640000000e+02 2.1694120600e+06 -1.1953459770e-02
2.8640000000e+02 2.1694135200e+06 -9.8919717067e-03
2.8640000000e+02 2.1694149800e+06 -7.8304288138e-03
2.8640000000e+02 2.1694164400e+06 -5.7688425183e-03
2.8640000000e+02 2.1694179000e+06 -3.7072242473e-03
2.8640000000e+02 2.1694193600e+06 -1.6455854278e-03
2.8640000000e+02 2.1694208200e+06 -4.0188699560e-04
2.8640000000e+02 2.1694222800e+06 -2.3932912457e-03
2.8640000000e+02 2.1694237400e+06 -4.3846831194e-03
2.8640000000e+02 2.1694252000e+06 -6.3760523168e-03
2.8640000000e+02 2.1694266600e+06 -8.3673885402e-03
2.8640000000e+02 2.1694281200e+06 -1.0358681491e-02
2.8640000000e+02 2.1694295800e+06 -1.2349920872e-02
2.8640000000e+02 2.1694310400e+06 -1.4341096384e-02
2.8640000000e+02 2.1694325000e+06 -1.6332197731e-02
2.8640000000e+02 2.1694339600e+06 -1.8323214614e-02
2.8640000000e+02 2.1694354200e+06 -2.0314136739e-02
2.8640000000e+02 2.1694368800e+06 -2.2304953808e-02
2.8640000000e+02 2.1694383400e+06 -2.4295655525e-02
2.8640000000e+02 2.1694398000e+06 -2.6286231596e-02
2.8640000000e+02 2.1694412600e+06 -2.8276671727e-02
2.8640000000e+02 2.1694427200e+06 -3.0266965624e-02
2.8640000000e+02 2.1694441800e+06 -3.1665318353e-02
2.8640000000e+02 2.1694456400e+06 -3.1665248590e-02
2.8640000000e+02 2.1694471000e+06 -3.1665178827e-02
2.8640000000e+02 2.1694485600e+06 -3.1665109063e-02
2.8640000000e+02 2.1694500200e+06 -3.1665039300e-02
2.8640000000e+02 2.1694514800e+06 -3.1664969536e-02
2.8640000000e+02 2.1694529400e+06 -3.1664899773e-02
2.8640000000e+02 2.1694544000e+06 -3.1664830010e-02
2.8640000000e+02 2.1694558600e+06 -3.1664760246e-02
2.8640000000e+02 2.1694573200e+06 -3.1664690483e-02
2.8640000000e+02 2.1694587800e+06 -3.1664620719e-02
2.8640000000e+02 2.1694602400e+06 -3.1664550956e-02
2.8640000000e+02 2.1694617000e+06 -3.1664481193e-02
2.8640000000e+02 2.1694631600e+06 -3.1664411429e-02
2.8640000000e+02 2.1694646200e+06 -3.1664341666e-02
2.8640000000e+02 2.1694660800e+06 -3.1664271902e-02
2.8640000000e+02 2.1694675400e+06 -3.1664202139e-02
2.8640000000e+02 2.1694690000e+06 -3.1658082308e-02
2.8640000000e+02 2.1694704600e+06 -3.1650730330e-02
2.8640000000e+02 2.1694719200e+06 -3.1643378351e-02
2.8640000000e+02 2.1694733800e+06 -3.1636026369e-02
2.8640000000e+02 2.1694748400e+06 -3.1628674385e-02
2.8640000000e+02 2.1694763000e+06 -3.1621322399e-02
2.8640000000e+02 2.1694777600e+06 -3.1613970410e-02
2.8640000000e+02 2.1694792200e+06 -3.1606618420e-02
2.8640000000e+02 2.1694806800e+06 -3.1599266427e-02
2.8640000000e+02 2.1694821400e+06 -3.1591914432e-02
2.8640000000e+02 2.1694836000e+06 -3.1584562434e-02
2.8640000000e+02 2.1694850600e+06 -3.1577210435e-02
2.8640000000e+02 2.1694865200e+06 -3.1569858433e-02
2.8640000000e+02 2.1694879800e+06 -3.1562506429e-02
2.8640000000e+02 2.1694894400e+06 -3.1555154422e-02
2.8640000000e+02 2.1694909000e+06 -3.1547802414e-02
2.8640000000e+02 2.1694923600e+06 -3.1543128334e-02
2.8640000000e+02 2.1694938200e+06 -3.1543128330e-02
2.8640000000e+02 2.1694952800e+06 -3.1543128325e-02
2.8640000000e+02 2.1694967400e+06 -3.1543128321e-02
2.8640000000e+02 2.1694982000e+06 -3.1543128316e-02
2.8640000000e+02 2.1694996600e+06 -3.1543128312e-02
2.8640000000e+02 2.1695011200e+06 -3.1543128307e-02
2.8640000000e+02 2.1695025800e+06 -3.1543128303e-02
2.8640000000e+02 2.1695040400e+06 -3.1543128298e-02
2.8640000000e+02 2.1695055000e+06 -3.1543128294e-02
2.8640000000e+02 2.1695069600e+06 -3.1543128289e-02
2.8640000000e+02 2.1695084200e+06 -3.1543128284e-02
2.8640000000e+02 2.1695098800e+06 -3.1543128280e-02
2.8640000000e+02 2.1695113400e+06 -3.1543128275e-02
2.8640000000e+02 2.1695128000e+06 -3.1543128271e-02
2.8640000000e+02 2.1695142600e+06 -3.1543128266e-02
2.8640000000e+02 2.1695157200e+06 -3.1543128262e-02
2.8640000000e+02 2.1695171800e+06 -3.1543128261e-02
2.8640000000e+02 2.1695186400e+06 -3.1543128261e-02
2.8640000000e+02 2.1695201000e+06 -3.1543128261e-02
2.8640000000e+02 2.1695215600e+06 -3.1543128261e-02
2.8640000000e+02 2.1695230200e+06 -3.1543128261e-02
2.8640000000e+02 2.1695244800e+06 -3.1543128261e-02
2.8640000000e+02 2.1695259400e+06 -3.1543128261e-02
2.8640000000e+02 2.1695274000e+06 -3.1543128261e-02
2.8640000000e+02 2.1695288600e+06 -3.1543128261e-02
2.8640000000e+02 2.1695303200e+06 -3.1543128261e-02
2.8640000000e+02 2.1695317800e+06 -3.1543128261e-02
2.8640000000e+02 2.1695332400e+06 -3.1543128261e-02
2.8640000000e+02 2.1695347000e+06 -3.1543128261e-02
2.8640000000e+02 2.1695361600e+06 -3.1543128261e-02
2.8640000000e+02 2.1695376200e+06 -3.1543128261e-02
2.8640000000e+02 2.1695390800e+06 -3.1543128261e-02
2.8640000000e+02 2.1695405400e+06 -3.0962173840e-02
2.8640000000e+02 2.1695420000e+06 -2.9054628286e-02
2.8640000000e+02 2.1695434600e+06 -2.7146944702e-02
2.8640000000e+02 2.1695449200e+06 -2.5239132149e-02
2.8640000000e+02 2.1695463800e+06 -2.3331199692e-02
2.8640000000e+02 2.1695478400e+06 -2.1423156395e-02
2.8640000000e+02 2.1695493000e+06 -1.9515011322e-02
2.8640000000e+02 2.1695507600e+06 -1.7606773538e-02
2.8640000000e+02 2.1695522200e+06 -1.5698452108e-02
2.8640000000e+02 2.1695536800e+06 -1.3790056100e-02
2.8640000000e+02 2.1695551400e+06 -1.1881594579e-02
2.8640000000e+02 2.1695566000e+06 -9.9730766114e-03
2.8640000000e+02 2.1695580600e+06 -8.0645112645e-03
2.8640000000e+02 2.1695595200e+06 -6.1559076052e-03
2.8640000000e+02 2.1695609800e+06 -4.2472747009e-03
2.8640000000e+02 2.1695624400e+06 -2.3386216188e-03
2.8640000000e+02 2.1695639000e+06 -4.2995742662e-04
2.8640000000e+02 2.1695653600e+06 0.0000000000e+00
2.8640000000e+02 2.1695668200e+06 0.0000000000e+00
2.8640000000e+02 2.1695682800e+06 0.0000000000e+00
2.8640000000e+02 2.1695697400e+06 0.0000000000e+00
2.8640000000e+02 2.1695712000e+06 0.0000000000e+00
2.8640000000e+02 2.1695726600e+06 0.0000000000e+00
2.8640000000e+02 2.1695741200e+06 0.0000000000e+00
2.8640000000e+02 2.1695755800e+06 0.0000000000e+00
2.8640000000e+02 2.1695770400e+06 0.0000000000e+00
2.8640000000e+02 2.1695785000e+06 0.0000000000e+00
2.8640000000e+02 2.1695799600e+06 0.0000000000e+00
2.8640000000e+02 2.1695814200e+06 0.0000000000e+00
2.8640000000e+02 2.1695828800e+06 0.0000000000e+00
2.8640000000e+02 2.1695843400e+06 0.0000000000e+00
2.8640000000e+02 2.1695858000e+06 0.0000000000e+00
2.8640000000e+02 2.1695872600e+06 0.0000000000e+00
2.8640000000e+02 2.1695887200e+06 0.0000000000e+00
2.8640000000e+02 2.1695901800e+06 0.0000000000e+00
2.8640000000e+02 2.1695916400e+06 0.0000000000e+00
2.8640000000e+02 2.1695931000e+06 0.0000000000e+00
2.8640000000e+02 2.1695945600e+06 0.0000000000e+00
2.8640000000e+02 2.1695960200e+06 0.0000000000e+00
2.8640000000e+02 2.1695974800e+06 0.0000000000e+00
2.8640000000e+02 2.1695989400e+06 0.0000000000e+00
2.8640000000e+02 2.1696004000e+06 0.0000000000e+00
2.8640000000e+02 2.1696018600e+06 0.0000000000e+00
2.8640000000e+02 2.1696033200e+06 0.0000000000e+00
2.8640000000e+02 2.1696047800e+06 0.0000000000e+00
2.8640000000e+02 2.1696062400e+06 0.0000000000e+00
2.8640000000e+02 2.1696077000e+06 0.0000000000e+00
2.8640000000e+02 2.1696091600e+06 0.0000000000e+00
2.8640000000e+02 2.1696106200e+06 0.0000000000e+00
2.8640000000e+02 2.1696120800e+06 0.0000000000e+00
2.8640000000e+02 2.1696135400e+06 0.0000000000e+00
2.8800000000e+02 2.1692500000e+06 0.0000000000e+00
2.8800000000e+02 2.1692514600e+06 -8.1436742494e-02
2.8800000000e+02 2.1692529200e+06 -7.9274593188e-02
2.8800000000e+02 2.1692543800e+06 -7.7111956490e-02
2.8800000000e+02 2.1692558400e+06 -7.4948845695e-02
2.8800000000e+02 2.1692573000e+06 -7.2785274104e-02
2.8800000000e+02 2.1692587600e+06 -7.0621255018e-02
2.8800000000e+02 2.1692602200e+06 -6.8456801741e-02
2.8800000000e+02 2.1692616800e+06 -6.6291927582e-02
2.8800000000e+02 2.1692631400e+06 -6.4126645850e-02
2.8800000000e+02 2.1692646000e+06 -6.1960969857e-02
2.8800000000e+02 2.1692660600e+06 -5.9794912920e-02
2.8800000000e+02 2.1692675200e+06 -5.7628488353e-02
2.8800000000e+02 2.1692689800e+06 -5.5461709479e-02
2.8800000000e+02 2.1692704400e+06 -5.3294589617e-02
2.8800000000e+02 2.1692719000e+06 -5.1127142091e-02
2.8800000000e+02 2.1692733600e+06 -4.8959380229e-02
2.8800000000e+02 2.1692748200e+06 -4.7231133588e-02
2.8800000000e+02 2.1692762800e+06 -4.6119889030e-02
2.8800000000e+02 2.1692777400e+06 -4.5008569990e-02
2.8800000000e+02 2.1692792000e+06 -4.3897178265e-02
2.8800000000e+02 2.1692806600e+06 -4.2785715649e-02
2.8800000000e+02 2.1692821200e+06 -4.1674183937e-02
2.8800000000e+02 2.1692835800e+06 -4.0562584923e-02
2.8800000000e+02 2.1692850400e+06 -3.9450920404e-02
2.8800000000e+02 2.1692865000e+06 -3.8339192174e-02
2.8800000000e+02 2.1692879600e+06 -3.7227402028e-02
2.8800000000e+02 2.1692894200e+06 -3.6115551762e-02
2.8800000000e+02 2.1692908800e+06 -3.5003643172e-02
2.8800000000e+02 2.1692923400e+06 -3.3891678053e-02
2.8800000000e+02 2.1692938000e+06 -3.2779658202e-02
2.8800000000e+02 2.1692952600e+06 -3.1667585413e-02
2.8800000000e+02 2.1692967200e+06 -3.0555461482e-02
2.8800000000e+02 2.1692981800e+06 -2.9443288207e-02
2.8800000000e+02 2.1692996400e+06 -2.8331067383e-02
2.8800000000e+02 2.1693011000e+06 -2.7218800806e-02
2.8800000000e+02 2.1693025600e+06 -2.6106490272e-02
2.8800000000e+02 2.1693040200e+06 -2.4994137578e-02
2.8800000000e+02 2.1693054800e+06 -2.3881744520e-02
2.8800000000e+02 2.1693069400e+06 -2.4000259497e-02
2.8800000000e+02 2.1693084000e+06 -2.5048607391e-02
2.8800000000e+02 2.1693098600e+06 -2.6096919356e-02
2.8800000000e+02 2.1693113200e+06 -2.7145193889e-02
2.8800000000e+02 2.1693127800e+06 -2.8193429487e-02
2.8800000000e+02 2.1693142400e+06 -2.9241624647e-02
2.8800000000e+02 2.1693157000e+06 -3.0289777863e-02
2.8800000000e+02 2.1693171600e+06 -3.1337887633e-02
2.8800000000e+02 2.1693186200e+06 -3.2385952455e-02
2.8800000000e+02 2.1693200800e+06 -3.3433970824e-02
2.8800000000e+02 2.1693215400e+06 -3.4481941237e-02
2.8800000000e+02 2.1693230000e+06 -3.5529862191e-02
2.8800000000e+02 2.1693244600e+06 -3.6577732183e-02
2.8800000000e+02 2.1693259200e+06 -3.7625549711e-02
2.8800000000e+02 2.1693273800e+06 -3.8673313270e-02
2.8800000000e+02 2.1693288400e+06 -3.9721021359e-02
2.8800000000e+02 2.1693303000e+06 -4.0768672474e-02
2.8800000000e+02 2.1693317600e+06 -4.1816265113e-02
2.8800000000e+02 2.1693332200e+06 -4.2863797774e-02
2.8800000000e+02 2.1693346800e+06 -4.3911268953e-02
2.8800000000e+02 2.1693361400e+06 -4.4958677148e-02
2.8800000000e+02 2.1693376000e+06 -4.6006020857e-02
2.8800000000e+02 2.1693390600e+06 -4.6578061749e-02
2.8800000000e+02 2.1693405200e+06 -4.5951235786e-02
2.8800000000e+02 2.1693419800e+06 -4.5324386212e-02
2.8800000000e+02 2.1693434400e+06 -4.4697513350e-02
2.8800000000e+02 2.1693449000e+06 -4.4070617522e-02
2.8800000000e+02 2.1693463600e+06 -4.3443699049e-02
2.8800000000e+02 2.1693478200e+06 -4.2816758255e-02
2.8800000000e+02 2.1693492800e+06 -4.2189795460e-02
2.8800000000e+02 2.1693507400e+06 -4.1562810987e-02
2.8800000000e+02 2.1693522000e+06 -4.0935805159e-02
2.8800000000e+02 2.1693536600e+06 -4.0308778297e-02
2.8800000000e+02 2.1693551200e+06 -3.9681730724e-02
2.8800000000e+02 2.1693565800e+06 -3.9054662762e-02
2.8800000000e+02 2.1693580400e+06 -3.8427574733e-02
2.8800000000e+02 2.1693595000e+06 -3.7800466959e-02
2.8800000000e+02 2.1693609600e+06 -3.7173339762e-02
2.8800000000e+02 2.1693624200e+06 -3.6546193465e-02
2.8800000000e+02 2.1693638800e+06 -3.5919028390e-02
2.8800000000e+02 2.1693653400e+06 -3.5291844860e-02
2.8800000000e+02 2.1693668000e+06 -3.4664643196e-02
2.8800000000e+02 2.1693682600e+06 -3.4037423720e-02
2.8800000000e+02 2.1693697200e+06 -3.3410186755e-02
2.8800000000e+02 2.1693711800e+06 -3.2782932624e-02
2.8800000000e+02 2.1693726400e+06 -3.2781738495e-02
2.8800000000e+02 2.1693741000e+06 -3.2781738490e-02
2.8800000000e+02 2.1693755600e+06 -3.2781738485e-02
2.8800000000e+02 2.1693770200e+06 -3.2781738480e-02
2.8800000000e+02 2.1693784800e+06 -3.2781738475e-02
2.8800000000e+02 2.1693799400e+06 -3.2781738470e-02
2.8800000000e+02 2.1693814000e+06 -3.2781738466e-02
2.8800000000e+02 2.1693828600e+06 -3.2781738461e-02
2.8800000000e+02 2.1693843200e+06 -3.2781738456e-02
2.8800000000e+02 2.1693857800e+06 -3.2781738451e-02
2.8800000000e+02 2.1693872400e+06 -3.2781738446e-02
2.8800000000e+02 2.1693887000e+06 -3.2781738441e-02
2.8800000000e+02 2.1693901600e+06 -3.2781738436e-02
2.8800000000e+02 2.1693916200e+06 -3.2781738431e-02
2.8800000000e+02 2.1693930800e+06 -3.2781738426e-02
2.8800000000e+02 2.1693945400e+06 -3.2588814951e-02
2.8800000000e+02 2.1693960000e+06 -3.0528505760e-02
2.8800000000e+02 2.1693974600e+06 -2.8468027355e-02
2.8800000000e+02 2.1693989200e+06 -2.6407391158e-02
2.8800000000e+02 2.1694003800e+06 -2.4346608589e-02
2.8800000000e+02 2.1694018400e+06 -2.2285691072e-02
2.8800000000e+02 2.1694033000e+06 -2.0224650030e-02
2.8800000000e+02 2.1694047600e+06 -1.8163496886e-02
2.8800000000e+02 2.1694062200e+06 -1.6102243064e-02
2.8800000000e+02 2.1694076800e+06 -1.4040899992e-02
2.8800000000e+02 2.1694091400e+06 -1.1979479093e-02
2.8800000000e+02 2.1694106000e+06 -9.9179917949e-03
2.8800000000e+02 2.1694120600e+06 -7.8564495229e-03
2.8800000000e+02 2.1694135200e+06 -5.7948637040e-03
2.8800000000e+02 2.1694149800e+06 -3.7332457654e-03
2.8800000000e+02 2.1694164400e+06 -1.6716071340e-03
2.8800000000e+02 2.1694179000e+06 -3.7675182308e-04
2.8800000000e+02 2.1694193600e+06 -2.3681561636e-03
2.8800000000e+02 2.1694208200e+06 -4.3595482570e-03
2.8800000000e+02 2.1694222800e+06 -6.3509178048e-03
2.8800000000e+02 2.1694237400e+06 -8.3422545092e-03
2.8800000000e+02 2.1694252000e+06 -1.0333548071e-02
2.8800000000e+02 2.1694266600e+06 -1.2324788191e-02
2.8800000000e+02 2.1694281200e+06 -1.4315964574e-02
2.8800000000e+02 2.1694295800e+06 -1.6307066921e-02
2.8800000000e+02 2.1694310400e+06 -1.8298084935e-02
2.8800000000e+02 2.1694325000e+06 -2.0289008319e-02
2.8800000000e+02 2.1694339600e+06 -2.2279826778e-02
2.8800000000e+02 2.1694354200e+06 -2.4270530016e-02
2.8800000000e+02 2.1694368800e+06 -2.6261107737e-02
2.8800000000e+02 2.1694383400e+06 -2.8251549648e-02
2.8800000000e+02 2.1694398000e+06 -3.0241845455e-02
2.8800000000e+02 2.1694412600e+06 -3.1665319234e-02
2.8800000000e+02 2.1694427200e+06 -3.1665249471e-02
2.8800000000e+02 2.1694441800e+06 -3.1665179707e-02
2.8800000000e+02 2.1694456400e+06 -3.1665109944e-02
2.8800000000e+02 2.1694471000e+06 -3.1665040180e-02
2.8800000000e+02 2.1694485600e+06 -3.1664970417e-02
2.8800000000e+02 2.1694500200e+06 -3.1664900654e-02
2.8800000000e+02 2.1694514800e+06 -3.1664830890e-02
2.8800000000e+02 2.1694529400e+06 -3.1664761127e-02
2.8800000000e+02 2.1694544000e+06 -3.1664691363e-02
2.8800000000e+02 2.1694558600e+06 -3.1664621600e-02
2.8800000000e+02 2.1694573200e+06 -3.1664551836e-02
2.8800000000e+02 2.1694587800e+06 -3.1664482073e-02
2.8800000000e+02 2.1694602400e+06 -3.1664412310e-02
2.8800000000e+02 2.1694617000e+06 -3.1664342546e-02
2.8800000000e+02 2.1694631600e+06 -3.1664272783e-02
2.8800000000e+02 2.1694646200e+06 -3.1664203019e-02
2.8800000000e+02 2.1694660800e+06 -3.1658175103e-02
2.8800000000e+02 2.1694675400e+06 -3.1650823126e-02
2.8800000000e+02 2.1694690000e+06 -3.1643471146e-02
2.8800000000e+02 2.1694704600e+06 -3.1636119164e-02
2.8800000000e+02 2.1694719200e+06 -3.1628767180e-02
2.8800000000e+02 2.1694733800e+06 -3.1621415194e-02
2.8800000000e+02 2.1694748400e+06 -3.1614063206e-02
2.8800000000e+02 2.1694763000e+06 -3.1606711215e-02
2.8800000000e+02 2.1694777600e+06 -3.1599359222e-02
2.8800000000e+02 2.1694792200e+06 -3.1592007227e-02
2.8800000000e+02 2.1694806800e+06 -3.1584655230e-02
2.8800000000e+02 2.1694821400e+06 -3.1577303230e-02
2.8800000000e+02 2.1694836000e+06 -3.1569951228e-02
2.8800000000e+02 2.1694850600e+06 -3.1562599224e-02
2.8800000000e+02 2.1694865200e+06 -3.1555247218e-02
2.8800000000e+02 2.1694879800e+06 -3.1547895210e-02
2.8800000000e+02 2.1694894400e+06 -3.1543128334e-02
2.8800000000e+02 2.1694909000e+06 -3.1543128330e-02
2.8800000000e+02 2.1694923600e+06 -3.1543128325e-02
2.8800000000e+02 2.1694938200e+06 -3.1543128321e-02
2.8800000000e+02 2.1694952800e+06 -3.1543128316e-02
2.8800000000e+02 2.1694967400e+06 -3.1543128312e-02
2.8800000000e+02 2.1694982000e+06 -3.1543128307e-02
2.8800000000e+02 2.1694996600e+06 -3.1543128303e-02
2.8800000000e+02 2.1695011200e+06 -3.1543128298e-02
2.8800000000e+02 2.1695025800e+06 -3.1543128294e-02
2.8800000000e+02 2.1695040400e+06 -3.1543128289e-02
2.8800000000e+02 2.1695055000e+06 -3.1543128285e-02
2.8800000000e+02 2.1695069600e+06 -3.1543128280e-02
2.8800000000e+02 2.1695084200e+06 -3.1543128275e-02
2.8800000000e+02 2.1695098800e+06 -3.1543128271e-02
2.8800000000e+02 2.1695113400e+06 -3.1543128266e-02
2.8800000000e+02 2.1695128000e+06 -3.1543128262e-02
2.8800000000e+02 2.1695142600e+06 -3.1543128261e-02
2.8800000000e+02 2.1695157200e+06 -3.1543128261e-02
2.8800000000e+02 2.1695171800e+06 -3.1543128261e-02
2.8800000000e+02 2.1695186400e+06 -3.1543128261e-02
2.8800000000e+02 2.1695201000e+06 -3.1543128261e-02
2.8800000000e+02 2.1695215600e+06 -3.1543128261e-02
2.8800000000e+02 2.1695230200e+06 -3.1543128261e-02
2.8800000000e+02 2.1695244800e+06 -3.1543128261e-02
2.8800000000e+02 2.1695259400e+06 -3.1543128261e-02
2.8800000000e+02 2.1695274000e+06 -3.1543128261e-02
2.8800000000e+02 2.1695288600e+06 -3.1543128261e-02
2.8800000000e+02 2.1695303200e+06 -3.1543128261e-02
2.8800000000e+02 2.1695317800e+06 -3.1543128261e-02
2.8800000000e+02 2.1695332400e+06 -3.1543128261e-02
2.8800000000e+02 2.1695347000e+06 -3.1543128261e-02
2.8800000000e+02 2.1695361600e+06 -3.1543128261e-02
2.8800000000e+02 2.1695376200e+06 -3.0986249607e-02
2.8800000000e+02 2.1695390800e+06 -2.9078705854e-02
2.8800000000e+02 2.1695405400e+06 -2.7171023955e-02
2.8800000000e+02 2.1695420000e+06 -2.5263212974e-02
2.8800000000e+02 2.1695434600e+06 -2.3355281974e-02
2.8800000000e+02 2.1695449200e+06 -2.1447240019e-02
2.8800000000e+02 2.1695463800e+06 -1.9539096174e-02
2.8800000000e+02 2.1695478400e+06 -1.7630859504e-02
2.8800000000e+02 2.1695493000e+06 -1.5722539074e-02
2.8800000000e+02 2.1695507600e+06 -1.3814143951e-02
2.8800000000e+02 2.1695522200e+06 -1.1905683199e-02
2.8800000000e+02 2.1695536800e+06 -9.9971658879e-03
2.8800000000e+02 2.1695551400e+06 -8.0886010825e-03
2.8800000000e+02 2.1695566000e+06 -6.1799978503e-03
2.8800000000e+02 2.1695580600e+06 -4.2713652586e-03
2.8800000000e+02 2.1695595200e+06 -2.3627123747e-03
2.8800000000e+02 2.1695609800e+06 -4.5404826623e-04
2.8800000000e+02 2.1695624400e+06 0.0000000000e+00
2.8800000000e+02 2.1695639000e+06 0.0000000000e+00
2.8800000000e+02 2.1695653600e+06 0.0000000000e+00
2.8800000000e+02 2.1695668200e+06 0.0000000000e+00
2.8800000000e+02 2.1695682800e+06 0.0000000000e+00
2.8800000000e+02 2.1695697400e+06 0.0000000000e+00
2.8800000000e+02 2.1695712000e+06 0.0000000000e+00
2.8800000000e+02 2.1695726600e+06 0.0000000000e+00
2.8800000000e+02 2.1695741200e+06 0.0000000000e+00
2.8800000000e+02 2.1695755800e+06 0.0000000000e+00
2.8800000000e+02 2.1695770400e+06 0.0000000000e+00
2.8800000000e+02 2.1695785000e+06 0.0000000000e+00
2.8800000000e+02 2.1695799600e+06 0.0000000000e+00
2.8800000000e+02 2.1695814200e+06 0.0000000000e+00
2.8800000000e+02 2.1695828800e+06 0.0000000000e+00
2.8800000000e+02 2.1695843400e+06 0.0000000000e+00
2.8800000000e+02 2.1695858000e+06 0.0000000000e+00
2.8800000000e+02 2.1695872600e+06 0.0000000000e+00
2.8800000000e+02 2.1695887200e+06 0.0000000000e+00
2.8800000000e+02 2.1695901800e+06 0.0000000000e+00
2.8800000000e+02 2.1695916400e+06 0.0000000000e+00
2.8800000000e+02 2.1695931000e+06 0.0000000000e+00
2.8800000000e+02 2.1695945600e+06 0.0000000000e+00
2.8800000000e+02 2.1695960200e+06 0.0000000000e+00
2.8800000000e+02 2.1695974800e+06 0.0000000000e+00
2.8800000000e+02 2.1695989400e+06 0.0000000000e+00
2.8800000000e+02 2.1696004000e+06 0.0000000000e+00
2.8800000000e+02 2.1696018600e+06 0.0000000000e+00
2.8800000000e+02 2.1696033200e+06 0.0000000000e+00
2.8800000000e+02 2.1696047800e+06 0.0000000000e+00
2.8800000000e+02 2.1696062400e+06 0.0000000000e+00
2.8800000000e+02 2.1696077000e+06 0.0000000000e+00
2.8800000000e+02 2.1696091600e+06 0.0000000000e+00
2.8800000000e+02 2.1696106200e+06 0.0000000000e+00
2.8800000000e+02 2.1696120800e+06 0.0000000000e+00
2.8800000000e+02 2.1696135400e+06 0.0000000000e+00
2.8960000000e+02 2.1692500000e+06 0.0000000000e+00
2.8960000000e+02 2.1692514600e+06 -7.7139255874e-02
2.8960000000e+02 2.1692529200e+06 -7.4976150981e-02
2.8960000000e+02 2.1692543800e+06 -7.2812585123e-02
2.8960000000e+02 2.1692558400e+06 -7.0648571602e-02
2.8960000000e+02 2.1692573000e+06 -6.8484123723e-02
2.8960000000e+02 2.1692587600e+06 -6.6319254793e-02
2.8960000000e+02 2.1692602200e+06 -6.4153978122e-02
2.8960000000e+02 2.1692616800e+06 -6.1988307023e-02
2.8960000000e+02 2.1692631400e+06 -5.9822254810e-02
2.8960000000e+02 2.1692646000e+06 -5.7655834801e-02
2.8960000000e+02 2.1692660600e+06 -5.5489060315e-02
2.8960000000e+02 2.1692675200e+06 -5.3321944674e-02
2.8960000000e+02 2.1692689800e+06 -5.1154501202e-02
2.8960000000e+02 2.1692704400e+06 -4.8986743223e-02
2.8960000000e+02 2.1692719000e+06 -4.7245159028e-02
2.8960000000e+02 2.1692733600e+06 -4.6133915422e-02
2.8960000000e+02 2.1692748200e+06 -4.5022597312e-02
2.8960000000e+02 2.1692762800e+06 -4.3911206493e-02
2.8960000000e+02 2.1692777400e+06 -4.2799744760e-02
2.8960000000e+02 2.1692792000e+06 -4.1688213909e-02
2.8960000000e+02 2.1692806600e+06 -4.0576615733e-02
2.8960000000e+02 2.1692821200e+06 -3.9464952029e-02
2.8960000000e+02 2.1692835800e+06 -3.8353224592e-02
2.8960000000e+02 2.1692850400e+06 -3.7241435217e-02
2.8960000000e+02 2.1692865000e+06 -3.6129585698e-02
2.8960000000e+02 2.1692879600e+06 -3.5017677833e-02
2.8960000000e+02 2.1692894200e+06 -3.3905713417e-02
2.8960000000e+02 2.1692908800e+06 -3.2793694245e-02
2.8960000000e+02 2.1692923400e+06 -3.1681622113e-02
2.8960000000e+02 2.1692938000e+06 -3.0569498817e-02
2.8960000000e+02 2.1692952600e+06 -2.9457326154e-02
2.8960000000e+02 2.1692967200e+06 -2.8345105918e-02
2.8960000000e+02 2.1692981800e+06 -2.7232839908e-02
2.8960000000e+02 2.1692996400e+06 -2.6120529917e-02
2.8960000000e+02 2.1693011000e+06 -2.5008177744e-02
2.8960000000e+02 2.1693025600e+06 -2.3895785184e-02
2.8960000000e+02 2.1693040200e+06 -2.3987027220e-02
2.8960000000e+02 2.1693054800e+06 -2.5035375558e-02
2.8960000000e+02 2.1693069400e+06 -2.6083687986e-02
2.8960000000e+02 2.1693084000e+06 -2.7131963001e-02
2.8960000000e+02 2.1693098600e+06 -2.8180199100e-02
2.8960000000e+02 2.1693113200e+06 -2.9228394778e-02
2.8960000000e+02 2.1693127800e+06 -3.0276548533e-02
2.8960000000e+02 2.1693142400e+06 -3.1324658862e-02
2.8960000000e+02 2.1693157000e+06 -3.2372724260e-02
2.8960000000e+02 2.1693171600e+06 -3.3420743225e-02
2.8960000000e+02 2.1693186200e+06 -3.4468714252e-02
2.8960000000e+02 2.1693200800e+06 -3.5516635840e-02
2.8960000000e+02 2.1693215400e+06 -3.6564506485e-02
2.8960000000e+02 2.1693230000e+06 -3.7612324684e-02
2.8960000000e+02 2.1693244600e+06 -3.8660088934e-02
2.8960000000e+02 2.1693259200e+06 -3.9707797732e-02
2.8960000000e+02 2.1693273800e+06 -4.0755449576e-02
2.8960000000e+02 2.1693288400e+06 -4.1803042962e-02
2.8960000000e+02 2.1693303000e+06 -4.2850576389e-02
2.8960000000e+02 2.1693317600e+06 -4.3898048354e-02
2.8960000000e+02 2.1693332200e+06 -4.4945457353e-02
2.8960000000e+02 2.1693346800e+06 -4.5992801886e-02
2.8960000000e+02 2.1693361400e+06 -4.6585973278e-02
2.8960000000e+02 2.1693376000e+06 -4.5959147615e-02
2.8960000000e+02 2.1693390600e+06 -4.5332298338e-02
2.8960000000e+02 2.1693405200e+06 -4.4705425768e-02
2.8960000000e+02 2.1693419800e+06 -4.4078530227e-02
2.8960000000e+02 2.1693434400e+06 -4.3451612039e-02
2.8960000000e+02 2.1693449000e+06 -4.2824671524e-02
2.8960000000e+02 2.1693463600e+06 -4.2197709005e-02
2.8960000000e+02 2.1693478200e+06 -4.1570724804e-02
2.8960000000e+02 2.1693492800e+06 -4.0943719243e-02
2.8960000000e+02 2.1693507400e+06 -4.0316692644e-02
2.8960000000e+02 2.1693522000e+06 -3.9689645331e-02
2.8960000000e+02 2.1693536600e+06 -3.9062577624e-02
2.8960000000e+02 2.1693551200e+06 -3.8435489846e-02
2.8960000000e+02 2.1693565800e+06 -3.7808382319e-02
2.8960000000e+02 2.1693580400e+06 -3.7181255366e-02
2.8960000000e+02 2.1693595000e+06 -3.6554109308e-02
2.8960000000e+02 2.1693609600e+06 -3.5926944468e-02
2.8960000000e+02 2.1693624200e+06 -3.5299761168e-02
2.8960000000e+02 2.1693638800e+06 -3.4672559731e-02
2.8960000000e+02 2.1693653400e+06 -3.4045340478e-02
2.8960000000e+02 2.1693668000e+06 -3.3418103733e-02
2.8960000000e+02 2.1693682600e+06 -3.2790849816e-02
2.8960000000e+02 2.1693697200e+06 -3.2781738495e-02
2.8960000000e+02 2.1693711800e+06 -3.2781738490e-02
2.8960000000e+02 2.1693726400e+06 -3.2781738485e-02
2.8960000000e+02 2.1693741000e+06 -3.2781738480e-02
2.8960000000e+02 2.1693755600e+06 -3.2781738475e-02
2.8960000000e+02 2.1693770200e+06 -3.2781738471e-02
2.8960000000e+02 2.1693784800e+06 -3.2781738466e-02
2.8960000000e+02 2.1693799400e+06 -3.2781738461e-02
2.8960000000e+02 2.1693814000e+06 -3.2781738456e-02
2.8960000000e+02 2.1693828600e+06 -3.2781738451e-02
2.8960000000e+02 2.1693843200e+06 -3.2781738446e-02
2.8960000000e+02 2.1693857800e+06 -3.2781738441e-02
2.8960000000e+02 2.1693872400e+06 -3.2781738436e-02
2.8960000000e+02 2.1693887000e+06 -3.2781738431e-02
2.8960000000e+02 2.1693901600e+06 -3.2781738426e-02
2.8960000000e+02 2.1693916200e+06 -3.2614818663e-02
2.8960000000e+02 2.1693930800e+06 -3.0554511681e-02
2.8960000000e+02 2.1693945400e+06 -2.8494035341e-02
2.8960000000e+02 2.1693960000e+06 -2.6433401065e-02
2.8960000000e+02 2.1693974600e+06 -2.4372620272e-02
2.8960000000e+02 2.1693989200e+06 -2.2311704387e-02
2.8960000000e+02 2.1694003800e+06 -2.0250664833e-02
2.8960000000e+02 2.1694018400e+06 -1.8189513032e-02
2.8960000000e+02 2.1694033000e+06 -1.6128260411e-02
2.8960000000e+02 2.1694047600e+06 -1.4066918394e-02
2.8960000000e+02 2.1694062200e+06 -1.2005498406e-02
2.8960000000e+02 2.1694076800e+06 -9.9440118744e-03
2.8960000000e+02 2.1694091400e+06 -7.8824702250e-03
2.8960000000e+02 2.1694106000e+06 -5.8208848846e-03
2.8960000000e+02 2.1694120600e+06 -3.7592672802e-03
2.8960000000e+02 2.1694135200e+06 -1.6976288388e-03
2.8960000000e+02 2.1694149800e+06 -3.5161665024e-04
2.8960000000e+02 2.1694164400e+06 -2.3430210795e-03
2.8960000000e+02 2.1694179000e+06 -4.3344133917e-03
2.8960000000e+02 2.1694193600e+06 -6.3257832882e-03
2.8960000000e+02 2.1694208200e+06 -8.3171204707e-03
2.8960000000e+02 2.1694222800e+06 -1.0308414641e-02
2.8960000000e+02 2.1694237400e+06 -1.2299655501e-02
2.8960000000e+02 2.1694252000e+06 -1.4290832752e-02
2.8960000000e+02 2.1694266600e+06 -1.6281936098e-02
2.8960000000e+02 2.1694281200e+06 -1.8272955240e-02
2.8960000000e+02 2.1694295800e+06 -2.0263879883e-02
2.8960000000e+02 2.1694310400e+06 -2.2254699731e-02
2.8960000000e+02 2.1694325000e+06 -2.4245404487e-02
2.8960000000e+02 2.1694339600e+06 -2.6235983857e-02
2.8960000000e+02 2.1694354200e+06 -2.8226427546e-02
2.8960000000e+02 2.1694368800e+06 -3.0216725261e-02
2.8960000000e+02 2.1694383400e+06 -3.1665320115e-02
2.8960000000e+02 2.1694398000e+06 -3.1665250351e-02
2.8960000000e+02 2.1694412600e+06 -3.1665180588e-02
2.8960000000e+02 2.1694427200e+06 -3.1665110824e-02
2.8960000000e+02 2.1694441800e+06 -3.1665041061e-02
2.8960000000e+02 2.1694456400e+06 -3.1664971297e-02
2.8960000000e+02 2.1694471000e+06 -3.1664901534e-02
2.8960000000e+02 2.1694485600e+06 -3.1664831771e-02
2.8960000000e+02 2.1694500200e+06 -3.1664762007e-02
2.8960000000e+02 2.1694514800e+06 -3.1664692244e-02
2.8960000000e+02 2.1694529400e+06 -3.1664622480e-02
2.8960000000e+02 2.1694544000e+06 -3.1664552717e-02
2.8960000000e+02 2.1694558600e+06 -3.1664482954e-02
2.8960000000e+02 2.1694573200e+06 -3.1664413190e-02
2.8960000000e+02 2.1694587800e+06 -3.1664343427e-02
2.8960000000e+02 2.1694602400e+06 -3.1664273663e-02
2.8960000000e+02 2.1694617000e+06 -3.1664203900e-02
2.8960000000e+02 2.1694631600e+06 -3.1658267898e-02
2.8960000000e+02 2.1694646200e+06 -3.1650915921e-02
2.8960000000e+02 2.1694660800e+06 -3.1643563942e-02
2.8960000000e+02 2.1694675400e+06 -3.1636211960e-02
2.8960000000e+02 2.1694690000e+06 -3.1628859976e-02
2.8960000000e+02 2.1694704600e+06 -3.1621507990e-02
